# .PCD v0.7 - Point Cloud Data file format
VERSION 0.7
FIELDS x y z rgb
SIZE 4 4 4 4
TYPE F F F U
COUNT 1 1 1 1
WIDTH 1085
HEIGHT 1
VIEWPOINT 0 0 0 1 0 0 0
POINTS 1085
DATA ascii
-0.48426542 -0.17382152 1.5430001 4288911266
-0.47479653 -0.17314517 1.5430001 4288911266
-0.46613923 -0.17233357 1.5430001 4288911266
-0.4558588 -0.17179246 1.5430001 4288911266
-0.41527787 -0.17179246 1.5430001 4288911266
-0.40716168 -0.17179246 1.5430001 4288911266
-0.46442583 -0.16818529 1.5430001 4288911266
-0.45540786 -0.16818528 1.5430001 4288911266
-0.44503722 -0.16773438 1.5430001 4288911266
-0.43556833 -0.16773438 1.5430001 4288911266
-0.42474678 -0.16773438 1.5430001 4288911266
-0.41527787 -0.16773438 1.5430001 4288911266
-0.40595928 -0.16728348 1.5430001 4288911266
-0.39600194 -0.16536716 1.5430001 4288911266
-0.38416585 -0.16367629 1.5430001 4288911266
-0.37469697 -0.16367629 1.5430001 4288911266
-0.36432633 -0.16457808 1.5430001 4288911266
-0.35440654 -0.16502899 1.5430001 4288911266
-0.34493762 -0.16367628 1.5430001 4288911266
-0.33546877 -0.16232361 1.5430001 4288911266
-0.32464719 -0.16232359 1.5430001 4288911266
-0.3151783 -0.16232359 1.5430001 4288911266
-0.30661127 -0.16187268 1.5430001 4288911266
-0.29624057 -0.1609709 1.5430001 4288911266
-0.26512855 -0.1609709 1.5430001 4288911266
-0.25475788 -0.1609709 1.5430001 4288911266
-0.30570945 -0.15826552 1.5430001 4288911266
-0.29430813 -0.15710606 1.5430001 4288911266
-0.28406629 -0.15691282 1.5430001 4288911266
-0.27459741 -0.15691282 1.5430001 4288911266
-0.26512855 -0.15691282 1.5430001 4288911266
-0.25393805 -0.15580605 1.5430001 4288911266
-0.2448381 -0.15556011 1.5430001 4288911266
-0.23536921 -0.15420742 1.5430001 4288911266
-0.2243544 -0.15440068 1.5430001 4288911266
-0.21507877 -0.15420742 1.5430001 4288911266
-0.20506883 -0.15556011 1.5430001 4288911266
-0.1953294 -0.15231365 1.5430001 4288911266
-0.18498126 -0.15251656 1.5430001 4288911266
-0.17585057 -0.15285473 1.5430001 4288911266
-0.16490601 -0.15260877 1.5430001 4288911266
-0.15420742 -0.15150203 1.5430001 4288911266
-0.14473854 -0.1512315 1.5430001 4288911266
-0.1358494 -0.15130879 1.5430001 4288911266
-0.12444809 -0.15014933 1.5430001 4288911266
-0.11565556 -0.15082568 1.5430001 4288911266
-0.10551034 -0.15014933 1.5430001 4288911266
-0.096041463 -0.15014933 1.5430001 4288911266
-0.08521989 -0.15014933 1.5430001 4288911266
-0.17449787 -0.14744394 1.5430001 4288911266
-0.16232359 -0.14744394 1.5430001 4288911266
-0.15691282 -0.14744394 1.5430001 4288911266
-0.14338584 -0.14744394 1.5430001 4288911266
-0.13526967 -0.14744394 1.5430001 4288911266
-0.12417755 -0.14690286 1.5430001 4288911266
-0.11633191 -0.14744394 1.5430001 4288911266
-0.10551034 -0.14744394 1.5430001 4288911266
-0.093786962 -0.14654215 1.5430001 4288911266
-0.08521989 -0.14609124 1.5430001 4288911266
-0.076330736 -0.145898 1.5430001 4288911266
-0.065509163 -0.145898 1.5430001 4288911266
-0.053656969 -0.14383675 1.5430001 4288911266
-0.044300817 -0.14440036 1.5430001 4288911266
-0.03544065 -0.14419746 1.5430001 4288911266
-0.024541782 -0.1431926 1.5430001 4288911266
-0.014203315 -0.14270949 1.5430001 4288911266
-0.0052604871 -0.14383674 1.5430001 4288911266
0.0054107867 -0.14338584 1.5430001 4288911266
0.013526967 -0.14203314 1.5430001 4288911266
0.079809099 -0.14203314 1.5430001 4288911266
0.12850618 -0.14203314 1.5430001 4288911266
0.13526967 -0.14203314 1.5430001 4288911266
0.14473854 -0.14203314 1.5430001 4288911266
0.15285473 -0.14203314 1.5430001 4288911266
-0.024078 -0.13878667 1.5430001 4288911266
-0.014879663 -0.13932775 1.5430001 4288911266
-0.0054107867 -0.13932775 1.5430001 4288911266
0.0054107867 -0.13932775 1.5430001 4288911266
0.014879663 -0.13932775 1.5430001 4288911266
0.02434854 -0.13797507 1.5430001 4288911266
0.035846461 -0.13639693 1.5430001 4288911266
0.044909529 -0.13445804 1.5430001 4288911266
0.054230843 -0.13367102 1.5430001 4288911266
0.064478546 -0.13752417 1.5430001 4288911266
0.075751014 -0.13797507 1.5430001 4288911266
0.08521989 -0.13797507 1.5430001 4288911266
0.094688758 -0.13797507 1.5430001 4288911266
0.10551033 -0.13797507 1.5430001 4288911266
0.11497921 -0.13797507 1.5430001 4288911266
0.12386836 -0.13816831 1.5430001 4288911266
0.1358494 -0.13816831 1.5430001 4288911266
0.14473854 -0.13797507 1.5430001 4288911266
0.15420742 -0.13797507 1.5430001 4288911266
0.16502899 -0.13797507 1.5430001 4288911266
0.17585057 -0.13526967 1.5430001 4288911266
0.18586051 -0.13554022 1.5430001 4288911266
0.19420861 -0.13546291 1.5430001 4288911266
0.20560989 -0.13526967 1.5430001 4288911266
0.21507879 -0.13526967 1.5430001 4288911266
0.2246706 -0.13416292 1.5430001 4288911266
0.23524624 -0.13416292 1.5430001 4288911266
0.2448381 -0.13391697 1.5430001 4288911266
0.25441104 -0.13433321 1.543 4288911266
0.26512855 -0.13391697 1.5430001 4288911266
0.27369562 -0.13301517 1.5430001 4288911266
0.28406629 -0.13121158 1.5430001 4288911266
0.29488787 -0.13256428 1.5430001 4288911266
0.30625051 -0.13337588 1.5430001 4288911266
0.31479186 -0.13314401 1.5430001 4288911266
0.32464719 -0.13256428 1.5430001 4288911266
0.33566198 -0.13237104 1.5430001 4288911266
0.34561399 -0.13188793 1.5430001 4288911266
0.35440654 -0.13256428 1.5430001 4288911266
0.36522809 -0.13211338 1.5430001 4288911266
0.37402064 -0.13188793 1.5430001 4288911266
0.38416585 -0.13121158 1.5430001 4288911266
0.39498746 -0.13121158 1.5430001 4288911266
0.24348539 -0.12850618 1.5430001 4288911266
0.25836506 -0.12850618 1.5430001 4288911266
0.26512855 -0.12850618 1.5430001 4288911266
0.27459744 -0.12850618 1.5430001 4288911266
0.28325468 -0.12796511 1.5430001 4288911266
0.3178837 -0.12850618 1.5430001 4288911266
0.32464719 -0.12850618 1.5430001 4288911266
0.33546877 -0.12850618 1.5430001 4288911266
0.34493765 -0.12850618 1.5430001 4288911266
0.35575923 -0.12850618 1.5430001 4288911266
0.36522806 -0.12850618 1.5430001 4288911266
0.37469697 -0.12850618 1.5430001 4288911266
0.38416582 -0.12850618 1.5430001 4288911266
0.39498743 -0.12850618 1.5430001 4288911266
0.40682352 -0.12681532 1.5430001 4288911266
0.41527787 -0.12444809 1.5430001 4288911266
0.42447624 -0.1244481 1.5430001 4288911266
0.43511742 -0.12489899 1.5430001 4288911266
0.44449615 -0.12417755 1.5430001 4288911266
0.45431283 -0.12425485 1.5430001 4288911266
0.46600398 -0.12309539 1.5430001 4288911266
0.4751347 -0.12275723 1.5430001 4288911266
0.48372436 -0.12255432 1.5430001 4288911266
0.49545586 -0.12284946 1.5430001 4288911266
0.50590855 -0.12444809 1.5430001 4288911266
0.51537734 -0.12309541 1.5430001 4288911266
0.52379423 -0.12249419 1.5430001 4288911266
0.53566784 -0.12039001 1.5430001 4288911266
0.54513675 -0.12106636 1.5430001 4288911266
0.5546056 -0.12039001 1.5430001 4288911266
0.56542718 -0.12039001 1.5430001 4288911266
0.60465539 -0.12039001 1.5430001 4288911266
0.61277157 -0.12039001 1.5430001 4288911266
0.5180828 -0.11768461 1.5430001 4288911266
0.52529722 -0.11768461 1.5430001 4288911266
0.53624761 -0.11652515 1.5430001 4288911266
0.54513675 -0.11768461 1.5430001 4288911266
0.55541724 -0.11714353 1.5430001 4288911266
0.56542724 -0.11633191 1.5430001 4288911266
0.5748961 -0.11633191 1.5430001 4288911266
0.58436501 -0.11633191 1.5430001 4288911266
0.59518647 -0.11633191 1.5430001 4288911266
0.60465539 -0.11633191 1.5430001 4288911266
0.6141243 -0.11633191 1.5430001 4288911266
0.62457699 -0.11473326 1.5430001 4288911266
0.63603795 -0.11281489 1.5430001 4288911266
0.64523631 -0.11227382 1.5430001 4288911266
0.65470523 -0.11227382 1.5430001 4288911266
0.66552681 -0.11227382 1.5430001 4288911266
0.67499566 -0.11227382 1.5430001 4288911266
0.68175912 -0.11227382 1.5430001 4288911266
0.69799149 -0.11227382 1.5430001 4288911266
0.63576746 -0.10956843 1.5430001 4288911266
0.64577734 -0.10848627 1.5430001 4288911266
0.65470523 -0.10866663 1.5430001 4288911266
0.66552675 -0.10821573 1.5430001 4288911266
0.67499566 -0.10821573 1.5430001 4288911266
0.68446445 -0.10821573 1.5430001 4288911266
0.69528604 -0.10821573 1.5430001 4288911266
0.70475501 -0.10641214 1.5430001 4288911266
0.71422386 -0.10551033 1.5430001 4288911266
0.72562516 -0.10299818 1.5430001 4288911266
0.73598999 -0.10464952 1.5430001 4288911266
0.74572235 -0.1049306 1.5430001 4288911266
0.755117 -0.10519818 1.543 4288911266
0.76630265 -0.10618669 1.5430001 4288911266
0.77470869 -0.10609006 1.5430001 4288911266
0.78501499 -0.10505943 1.5430001 4288911266
0.79484451 -0.10361656 1.5430001 4288911266
0.80519265 -0.10381946 1.5430001 4288911266
0.81432343 -0.10280494 1.5430001 4288911266
0.82108688 -0.10280494 1.5430001 4288911266
0.79944372 -0.098746859 1.5430001 4288911266
0.81432337 -0.098746859 1.5430001 4288911266
0.82108688 -0.098746859 1.5430001 4288911266
-0.85409665 -0.20489569 1.5546666 4288911266
-0.84507519 -0.204028 1.5530001 4288911266
-0.83618575 -0.20402989 1.556 4288911266
-0.82444185 -0.20338053 1.557 4288911266
-0.81488705 -0.20338053 1.557 4288911266
-0.80513734 -0.2045505 1.557 4288911266
-0.79499751 -0.2045505 1.557 4288911266
-0.78431177 -0.20228855 1.557 4288911266
-0.77530301 -0.20201558 1.557 4288911266
-0.76520216 -0.20119658 1.557 4288911266
-0.75482839 -0.20065059 1.557 4288911266
-0.74527359 -0.20065059 1.557 4288911266
-0.73415881 -0.20182057 1.557 4288911266
-0.7247991 -0.20201556 1.557 4288911266
-0.71582931 -0.20182058 1.557 4288911266
-0.70432448 -0.20065059 1.557 4288911266
-0.85470617 -0.1997485 1.5500001 4288911266
-0.84519434 -0.1997485 1.5500001 4288911266
-0.83490604 -0.1985838 1.5500001 4288911266
-0.82481176 -0.19838966 1.5500001 4288911266
-0.81545097 -0.19793671 1.5500001 4288911266
-0.80427843 -0.19793671 1.5500001 4288911266
-0.79491746 -0.19703084 1.5500001 4288911266
-0.78563213 -0.19635141 1.5500001 4288911266
-0.77482492 -0.1943873 1.5505834 4288911266
-0.76496637 -0.19539541 1.5521001 4288911266
-0.75564778 -0.1939476 1.5514001 4288911266
-0.74418771 -0.19521904 1.5500001 4288911266
-0.73549628 -0.19441204 1.5507779 4288911266
-0.72561699 -0.19431317 1.5500001 4288911266
-0.71471649 -0.1946591 1.5510769 4288911266
-0.70473027 -0.19451089 1.5515556 4288911266
-0.69582421 -0.19453563 1.5517501 4288911266
-0.68497294 -0.19460981 1.5523334 4288911266
-0.67492217 -0.19494088 1.5528001 4288911266
-0.66548717 -0.19445543 1.5529166 4288911266
-0.65509444 -0.19375262 1.5542001 4288911266
-0.64508486 -0.19300677 1.557 4288911266
-0.63471103 -0.19246078 1.557 4288911266
-0.62515622 -0.19246078 1.557 4288911266
-0.61423653 -0.19246078 1.557 4288911266
-0.6053642 -0.19314326 1.557 4288911266
-0.59454191 -0.19363077 1.557 4288911266
-0.58502614 -0.19300677 1.557 4288911266
-0.57465237 -0.19246078 1.557 4288911266
-0.56236768 -0.19246078 1.557 4288911266
-0.55417782 -0.19246078 1.557 4288911266
-0.54462302 -0.19246078 1.557 4288911266
-0.66311061 -0.18887784 1.5500001 4288911266
-0.65495765 -0.18887784 1.5500001 4288911266
-0.64365184 -0.18776476 1.5507779 4288911266
-0.63462609 -0.18681975 1.5526251 4288911266
-0.62509429 -0.18644448 1.5523334 4288911266
-0.61409771 -0.18593892 1.5516154 4288911266
-0.60492921 -0.18458582 1.5512729 4288911266
-0.59548259 -0.18574208 1.55 4288911266
-0.58436114 -0.18519166 1.5512351 4288911266
-0.57474178 -0.18644449 1.5523334 4288911266
-0.56551224 -0.18470016 1.5513998 4288911266
-0.55440396 -0.18616016 1.5500001 4288911266
-0.5448249 -0.18569398 1.5517501 4288911266
-0.53518879 -0.18485972 1.5524703 4288911266
-0.52407098 -0.18392985 1.5540833 4288911266
-0.51450652 -0.18375777 1.5526251 4288911266
-0.50503486 -0.18433022 1.5521538 4288911266
-0.49440274 -0.18555251 1.5529999 4288911266
-0.48488784 -0.18432355 1.5528001 4288911266
-0.4750528 -0.18376492 1.5526923 4288911266
-0.4654291 -0.18283914 1.5535001 4288911266
-0.45566764 -0.18217893 1.5546666 4288911266
-0.4449802 -0.18154101 1.557 4288911266
-0.43542543 -0.18154101 1.557 4288911266
-0.42450568 -0.18154101 1.557 4288911266
-0.41449592 -0.18154101 1.557 4288911266
-0.53130382 -0.17800717 1.5500001 4288911266
-0.52450967 -0.17800717 1.5500001 4288911266
-0.51771551 -0.17800717 1.5500001 4288911266
-0.48510352 -0.17800717 1.5500001 4288911266
-0.47559166 -0.17800717 1.5500001 4288911266
-0.46472099 -0.17664832 1.5500001 4288911266
-0.45482093 -0.176066 1.5500001 4288911266
-0.44532716 -0.17556038 1.5505384 4288911266
-0.43445608 -0.17504244 1.5500001 4288911266
-0.42574167 -0.17546815 1.5515556 4288911266
-0.41525331 -0.17688863 1.5507779 4288911266
-0.40448296 -0.17585945 1.5523334 4288911266
-0.39567176 -0.17522219 1.5542001 4288911266
-0.38492152 -0.17335118 1.557 4288911266
-0.37536675 -0.17335118 1.557 4288911266
-0.36519751 -0.1744239 1.5543751 4288911266
-0.35479075 -0.17457715 1.554 4288911266
-0.34522671 -0.17407581 1.5530001 4288911266
-0.33521885 -0.1744239 1.5543751 4288911266
-0.32481927 -0.17457716 1.554 4288911266
-0.31595811 -0.1738715 1.5535001 4288911266
-0.30493432 -0.17280519 1.557 4288911266
-0.2957435 -0.17153122 1.557 4288911266
-0.28391376 -0.17062125 1.557 4288911266
-0.27490497 -0.17116725 1.557 4288911266
-0.26499918 -0.17179123 1.557 4288911266
-0.25524938 -0.17062123 1.557 4288911266
-0.24978951 -0.17062125 1.557 4288911266
-0.39474106 -0.16917475 1.5500001 4288911266
-0.38649103 -0.16830121 1.5500001 4288911266
-0.37413207 -0.16804238 1.5500001 4288911266
-0.36498263 -0.16931063 1.5500001 4288911266
-0.3546555 -0.16985416 1.5500001 4288911266
-0.34423777 -0.16894828 1.5500001 4288911266
-0.33427301 -0.16849533 1.5500001 4288911266
-0.32476115 -0.16849534 1.5500001 4288911266
-0.31524932 -0.16849534 1.5500001 4288911266
-0.30437869 -0.16713652 1.5500001 4288911266
-0.29486683 -0.16475855 1.5500001 4288911266
-0.28535497 -0.16441885 1.5500001 4288911266
-0.27485493 -0.16466589 1.5500001 4288911266
-0.26497251 -0.16577767 1.5500001 4288911266
-0.2553097 -0.16532473 1.5500001 4288911266
-0.24495821 -0.16467044 1.5523334 4288911266
-0.23475994 -0.16514289 1.5544547 4288911266
-0.22535856 -0.16459627 1.5542001 4288911266
-0.21555039 -0.16432329 1.5542001 4288911266
-0.20478082 -0.16514289 1.5544547 4288911266
-0.19559111 -0.16328844 1.554 4288911266
-0.18496017 -0.16464764 1.5544547 4288911266
-0.17544302 -0.16420504 1.5543751 4288911266
-0.16551355 -0.16318412 1.5530001 4288911266
-0.15560658 -0.1637964 1.557 4288911266
-0.14468682 -0.16379641 1.557 4288911266
-0.13513201 -0.1637964 1.557 4288911266
-0.12557724 -0.16379641 1.557 4288911266
-0.11547647 -0.16297741 1.557 4288911266
-0.10646766 -0.16243143 1.557 4288911266
-0.2405135 -0.1589835 1.5500001 4288911266
-0.23507816 -0.1589835 1.5500001 4288911266
-0.22556634 -0.1589835 1.5500001 4288911266
-0.21469566 -0.1589835 1.5500001 4288911266
-0.19476612 -0.15807761 1.5500001 4288911266
-0.18561664 -0.15843996 1.5500001 4288911266
-0.17528951 -0.1589835 1.5500001 4288911266
-0.16604942 -0.15843996 1.5500001 4288911266
-0.15490699 -0.15762465 1.5500001 4288911266
-0.14539516 -0.15704229 1.5500001 4288911266
-0.1354304 -0.15717173 1.5500001 4288911266
-0.12501265 -0.15626583 1.5500001 4288911266
-0.1138166 -0.15657817 1.5506364 4288911266
-0.10478768 -0.15650517 1.5523334 4288911266
-0.09514229 -0.15537024 1.5518665 4288911266
-0.084307641 -0.15546435 1.5527998 4288911266
-0.075137421 -0.15485941 1.5531819 4288911266
-0.065322198 -0.15378341 1.5523334 4288911266
-0.054944694 -0.15302889 1.5538889 4288911266
-0.044670992 -0.15444456 1.5535001 4288911266
-0.035706028 -0.15423863 1.5526923 4288911266
-0.024512185 -0.15389897 1.5535001 4288911266
-0.014989357 -0.15364492 1.5543751 4288911266
-0.005447607 -0.15389897 1.5535001 4288911266
0.0052973069 -0.15302889 1.5538889 4288911266
0.014994214 -0.15264958 1.5546666 4288911266
0.02451423 -0.15253605 1.5535001 4288911266
0.035452399 -0.15270634 1.55525 4288911266
0.045044012 -0.15219416 1.557 4288911266
0.054598801 -0.15151167 1.557 4288911266
0.066337541 -0.15205766 1.557 4288911266
0.075073354 -0.15151167 1.557 4288911266
0.084628135 -0.15151167 1.557 4288911266
0.0955479 -0.15151167 1.557 4288911266
0.10510269 -0.15151167 1.557 4288911266
0.11465748 -0.15151167 1.557 4288911266
0.12557724 -0.15151167 1.557 4288911266
0.13513203 -0.15151167 1.557 4288911266
0.14468682 -0.15151167 1.557 4288911266
0.15560658 -0.15151167 1.557 4288911266
0.16516137 -0.15151167 1.557 4288911266
-0.072018169 -0.14811283 1.5500001 4288911266
-0.0611475 -0.14811283 1.5500001 4288911266
-0.054353334 -0.14811283 1.5500001 4288911266
-0.047559168 -0.14811283 1.5500001 4288911266
-0.033970833 -0.14811283 1.5500001 4288911266
-0.024187233 -0.1475693 1.5500001 4288911266
-0.0154907 -0.14702576 1.5500001 4288911266
-0.0058882777 -0.14811283 1.5500001 4288911266
0.0054353336 -0.14811283 1.5500001 4288911266
0.015335405 -0.14617164 1.5500001 4288911266
0.024458999 -0.14539517 1.5500001 4288911266
0.035329666 -0.14539517 1.5500001 4288911266
0.044886503 -0.14554381 1.5515556 4288911266
0.054477084 -0.14572757 1.5535001 4288911266
0.065296106 -0.14556238 1.5517501 4288911266
0.074735835 -0.14539517 1.5500001 4288911266
0.084689677 -0.14576386 1.5512729 4288911266
0.095154643 -0.1454509 1.5505834 4288911266
0.10468403 -0.14546949 1.5507779 4288911266
0.11418342 -0.1454509 1.5505834 4288911266
0.12469284 -0.14570306 1.5506364 4288911266
0.13603674 -0.14692122 1.5517501 4288911266
0.14572348 -0.14708845 1.5535001 4288911266
0.15567087 -0.14659834 1.5531112 4288911266
0.16560958 -0.14533053 1.5519092 4288911266
0.17506015 -0.14593449 1.5528001 4288911266
0.18535773 -0.14583701 1.5546666 4288911266
0.19538324 -0.14552106 1.5542001 4288911266
0.20486504 -0.14612426 1.555091 4288911266
0.21534209 -0.14583701 1.5546666 4288911266
0.22515729 -0.14538974 1.5528001 4288911266
0.23475994 -0.14606453 1.5544547 4288911266
0.2453264 -0.14583702 1.5546666 4288911266
0.25540301 -0.14533053 1.5519092 4288911266
0.26502609 -0.14600016 1.5535001 4288911266
0.2746821 -0.14524807 1.5542001 4288911266
0.28527874 -0.14468682 1.557 4288911266
0.29463848 -0.14449181 1.557 4288911266
0.30666327 -0.14423181 1.557 4288911266
0.31391984 -0.14368215 1.5535001 4288911266
0.32486284 -0.14332184 1.557 4288911266
0.33578262 -0.14241187 1.557 4288911266
0.34533742 -0.14195688 1.557 4288911266
0.35489219 -0.14332184 1.557 4288911266
0.36581194 -0.14263935 1.557 4288911266
0.37536678 -0.14195688 1.557 4288911266
0.38492152 -0.14195688 1.557 4288911266
0.3960363 -0.14215188 1.557 4288911266
0.4048501 -0.14168389 1.557 4288911266
0.41495088 -0.1405919 1.557 4288911266
0.42587063 -0.1405919 1.557 4288911266
0.43542543 -0.1405919 1.557 4288911266
0.44088531 -0.1405919 1.557 4288911266
0.043482665 -0.13995983 1.5500001 4288911266
0.05408157 -0.13941629 1.5500001 4288911266
0.17528951 -0.13995983 1.5500001 4288911266
0.18480133 -0.13995983 1.5500001 4288911266
0.19567201 -0.13995983 1.5500001 4288911266
0.20518382 -0.13995983 1.5500001 4288911266
0.21469566 -0.13995983 1.5500001 4288911266
0.22556634 -0.13995983 1.5500001 4288911266
0.23507817 -0.13995983 1.5500001 4288911266
0.24459 -0.13995983 1.5500001 4288911266
0.25500771 -0.13995983 1.5500001 4288911266
0.26497248 -0.13995983 1.5500001 4288911266
0.27584314 -0.13840687 1.5500001 4288911266
0.285355 -0.13724217 1.5500001 4288911266
0.29486683 -0.13860101 1.5500001 4288911266
0.30379632 -0.13879512 1.5500001 4288911266
0.31615523 -0.13905394 1.5500001 4288911266
0.32476118 -0.13860101 1.5500001 4288911266
0.33446714 -0.13763042 1.5500001 4288911266
0.34572601 -0.13685393 1.5500001 4288911266
0.3546555 -0.13860101 1.5500001 4288911266
0.36436146 -0.13685392 1.5500001 4288911266
0.3759439 -0.13633628 1.5500001 4288911266
0.38545573 -0.13633627 1.5500001 4288911266
0.39503223 -0.13646568 1.5500001 4288911266
0.4054791 -0.13471043 1.5521001 4288911266
0.41551897 -0.1347311 1.5523334 4288911266
0.42553717 -0.13504419 1.5528001 4288911266
0.43459862 -0.13443866 1.5521001 4288911266
0.44521928 -0.13493364 1.5546666 4288911266
0.45552123 -0.13476257 1.5562223 4288911266
0.46531436 -0.13301444 1.5535001 4288911266
0.47500956 -0.13308457 1.557 4288911266
0.48511034 -0.13349406 1.557 4288911266
0.49514961 -0.13429971 1.55525 4288911266
0.50495285 -0.13474987 1.5525455 4288911266
0.51447129 -0.1348661 1.5538889 4288911266
0.52320927 -0.13463028 1.5546668 4288911266
0.53506821 -0.13376705 1.557 4288911266
0.54462308 -0.13376705 1.557 4288911266
0.55437285 -0.13357207 1.557 4288911266
0.56418759 -0.13331206 1.557 4288911266
0.57328737 -0.13240209 1.557 4288911266
0.41716182 -0.12908916 1.5500001 4288911266
0.42667365 -0.12908916 1.5500001 4288911266
0.43527961 -0.12908916 1.5500001 4288911266
0.44651264 -0.12854564 1.5500001 4288911266
0.4558886 -0.12840974 1.5500001 4288911266
0.46444923 -0.12854563 1.5500001 4288911266
0.47468579 -0.12818329 1.5500001 4288911266
0.48578292 -0.12840976 1.5500001 4288911266
0.49370944 -0.12818328 1.5500001 4288911266
0.50548595 -0.12908916 1.5500001 4288911266
0.51499778 -0.12908916 1.5500001 4288911266
0.52532494 -0.12854563 1.5500001 4288911266
0.5350098 -0.12612444 1.5500001 4288911266
0.54452902 -0.12710498 1.5515556 4288911266
0.55440402 -0.1263715 1.5500001 4288911266
0.56559867 -0.12628345 1.5519092 4288911266
0.57500583 -0.1255164 1.5528001 4288911266
0.58363259 -0.12493361 1.5523332 4288911266
0.59515494 -0.12384406 1.5523334 4288911266
0.60407585 -0.12481473 1.5531112 4288911266
0.61443895 -0.12457206 1.5529166 4288911266
0.62510979 -0.12530108 1.5534998 4288911266
0.63466573 -0.12463686 1.5546668 4288911266
0.64390457 -0.12346151 1.556125 4288911266
0.65489042 -0.12361167 1.5563 4288911266
0.66392344 -0.12335426 1.556 4288911266
0.67429519 -0.1223923 1.557 4288911266
0.685215 -0.12148233 1.557 4288911266
0.69476968 -0.12148234 1.557 4288911266
0.70432448 -0.12148233 1.557 4288911266
0.71114939 -0.12148233 1.557 4288911266
0.72206914 -0.12148233 1.557 4288911266
0.63511866 -0.11713143 1.5500001 4288911266
0.64466935 -0.11705377 1.5500001 4288911266
0.65495765 -0.11685965 1.5500001 4288911266
0.66582829 -0.11685965 1.5500001 4288911266
0.67534018 -0.11685965 1.5500001 4288911266
0.684852 -0.11618024 1.5500001 4288911266
0.69546276 -0.11589349 1.5519092 4288911266
0.70533425 -0.1153175 1.5515556 4288911266
0.71487081 -0.11427546 1.5517498 4288911266
0.72526175 -0.11378269 1.5521538 4288911266
0.73468602 -0.11483181 1.5539999 4288911266
0.74484503 -0.11466045 1.5532665 4288911266
0.75530064 -0.11428104 1.5532308 4288911266
0.76421261 -0.11458413 1.5538889 4288911266
0.77532929 -0.11392089 1.5531112 4288911266
0.78517091 -0.1118385 1.5530001 4288911266
0.79462898 -0.11190951 1.554 4288911266
0.80528367 -0.11180169 1.5531112 4288911266
0.81512302 -0.1118385 1.5530001 4288911266
0.82411218 -0.11221684 1.5546666 4288911266
0.72697586 -0.10734782 1.5500001 4288911266
0.73512882 -0.10734783 1.5500001 4288911266
0.80307049 -0.10734782 1.5500001 4288911266
0.81665879 -0.10734782 1.5500001 4288911266
0.82345295 -0.10734783 1.5500001 4288911266
-0.8624261 -0.21252154 1.5640001 4288911266
-0.79798412 -0.21252154 1.5640001 4288911266
-0.8624261 -0.20977932 1.5640001 4288911266
-0.85557055 -0.20977932 1.5640001 4288911266
-0.84377909 -0.20923087 1.5640001 4288911266
-0.8343184 -0.20840822 1.5640001 4288911266
-0.82449216 -0.20795117 1.5640001 4288911266
-0.81463319 -0.20860408 1.5640001 4288911266
-0.80483961 -0.20977932 1.5640001 4288911266
-0.79496765 -0.20868245 1.5640001 4288911266
-0.78427303 -0.20703711 1.5640001 4288911266
-0.77467519 -0.20703711 1.5640001 4288911266
-0.76507747 -0.20566599 1.5640001 4288911266
-0.75547975 -0.20566599 1.5640001 4288911266
-0.74646962 -0.20586185 1.5640001 4288911266
-0.73573583 -0.20648865 1.5640001 4288911266
-0.72462988 -0.20772266 1.5640001 4288911266
-0.71516913 -0.20758553 1.5640001 4288911266
-0.70429176 -0.20520896 1.5640001 4288911266
-0.69569951 -0.20264956 1.5640001 4288911266
-0.68496567 -0.20272791 1.5640001 4288911266
-0.67399687 -0.20272791 1.5640001 4288911266
-0.66498673 -0.20292379 1.5640001 4288911266
-0.65621161 -0.20210111 1.5640001 4288911266
-0.64579123 -0.20155267 1.5640001 4288911266
-0.59506029 -0.20155267 1.5640001 4288911266
-0.65538901 -0.19881046 1.5640001 4288911266
-0.64442015 -0.19743936 1.5640001 4288911266
-0.63482237 -0.19743936 1.5640001 4288911266
-0.62522465 -0.19743936 1.5640001 4288911266
-0.61484337 -0.19763525 1.5640001 4288911266
-0.60465801 -0.19743937 1.5640001 4288911266
-0.59506029 -0.19881046 1.5640001 4288911266
-0.58614814 -0.1967538 1.5640001 4288911266
-0.57495075 -0.19606824 1.5640001 4288911266
-0.56571853 -0.19551983 1.5640001 4288911266
-0.55529821 -0.19743936 1.5640001 4288911266
-0.54524344 -0.19515419 1.5640001 4288911266
-0.53453577 -0.19293429 1.5640001 4288911266
-0.52513385 -0.19195493 1.5640001 4288911266
-0.51538378 -0.19241196 1.5640001 4288911266
-0.50456727 -0.1940116 1.5640001 4288911266
-0.49442106 -0.19332604 1.5640001 4288911266
-0.48517588 -0.19215082 1.5640001 4288911266
-0.47522554 -0.19113228 1.5640001 4288911266
-0.46754736 -0.19058383 1.5640001 4288911266
-0.46480516 -0.18784161 1.5640001 4288911266
-0.45566449 -0.18647051 1.5640001 4288911266
-0.44515261 -0.18601346 1.5640001 4288911266
-0.4342491 -0.1858829 1.5640001 4288911266
-0.42550007 -0.18601346 1.5640001 4288911266
-0.41613087 -0.18441385 1.5640001 4288911266
-0.40667024 -0.18290563 1.5640001 4288911266
-0.39899203 -0.18235719 1.5640001 4288911266
-0.3660855 -0.18235719 1.5640001 4288911266
-0.31809676 -0.18235719 1.5640001 4288911266
-0.39350763 -0.17961498 1.5640001 4288911266
-0.38473254 -0.17851809 1.5640001 4288911266
-0.37659729 -0.17870091 1.5640001 4288911266
-0.36471438 -0.17961498 1.5640001 4288911266
-0.35511661 -0.17961498 1.5640001 4288911266
-0.34688997 -0.17961498 1.5640001 4288911266
-0.33455002 -0.17961498 1.5640001 4288911266
-0.32495227 -0.17961498 1.5640001 4288911266
-0.31444046 -0.17870091 1.5640001 4288911266
-0.30438569 -0.17824388 1.5640001 4288911266
-0.29524496 -0.17687275 1.5640001 4288911266
-0.28564724 -0.17413056 1.5640001 4288911266
-0.27422133 -0.17550164 1.5640001 4288911266
-0.26462358 -0.17595869 1.5640001 4288911266
-0.2558485 -0.174679 1.5640001 4288911266
-0.24542809 -0.17275943 1.5640001 4288911266
-0.23583035 -0.17138833 1.5640001 4288911266
-0.2248615 -0.17138833 1.5640001 4288911266
-0.21389264 -0.17138833 1.5640001 4288911266
-0.20840821 -0.17138833 1.5640001 4288911266
-0.19195494 -0.17138833 1.5640001 4288911266
-0.18509941 -0.17138833 1.5640001 4288911266
-0.17550166 -0.17138833 1.5640001 4288911266
-0.1645328 -0.17138833 1.5640001 4288911266
-0.15493505 -0.17138833 1.5640001 4288911266
-0.14533731 -0.17138833 1.5640001 4288911266
-0.13409422 -0.17193678 1.5640001 4288911266
-0.1247707 -0.17138833 1.5640001 4288911266
-0.11791517 -0.17138833 1.5640001 4288911266
-0.21526375 -0.16864611 1.5640001 4288911266
-0.19469714 -0.16864611 1.5640001 4288911266
-0.17413056 -0.16864611 1.5640001 4288911266
-0.1645328 -0.16864611 1.5640001 4288911266
-0.15493505 -0.16864611 1.5640001 4288911266
-0.14533731 -0.16864611 1.5640001 4288911266
-0.13436845 -0.16864611 1.5640001 4288911266
-0.1247707 -0.16864611 1.5640001 4288911266
-0.11458535 -0.16747089 1.5640001 4288911266
-0.1042041 -0.16590391 1.5640001 4288911266
-0.094606362 -0.16453281 1.5640001 4288911266
-0.085008614 -0.16453281 1.5640001 4288911266
-0.075019121 -0.16394518 1.5640001 4288911266
-0.066270158 -0.16224761 1.5640001 4288911266
-0.055758338 -0.16133355 1.5640001 4288911266
-0.045246519 -0.16179058 1.5640001 4288911266
-0.035061158 -0.16198646 1.5640001 4288911266
-0.02559399 -0.16133355 1.5640001 4288911266
-0.015082173 -0.16041948 1.5640001 4288911266
-0.0054844269 -0.16041948 1.5640001 4288911266
0.0054844264 -0.16041948 1.5640001 4288911266
0.015082173 -0.16041948 1.5640001 4288911266
0.02467992 -0.16041948 1.5640001 4288911266
0.035648774 -0.16041948 1.5640001 4288911266
0.045246515 -0.16041948 1.5640001 4288911266
0.050730947 -0.16041948 1.5640001 4288911266
-0.05347316 -0.15767726 1.5640001 4288911266
-0.015082173 -0.15767726 1.5640001 4288911266
0.0059414622 -0.15767726 1.5640001 4288911266
0.015082173 -0.15767726 1.5640001 4288911266
0.02467992 -0.15767726 1.5640001 4288911266
0.035648774 -0.15767726 1.5640001 4288911266
0.045246519 -0.15658037 1.5640001 4288911266
0.054844264 -0.15630616 1.5640001 4288911266
0.065225504 -0.15650204 1.5640001 4288911266
0.075410865 -0.15630616 1.5640001 4288911266
0.084094547 -0.15584911 1.5640001 4288911266
0.094606362 -0.15493505 1.5640001 4288911266
0.10374707 -0.15584911 1.5640001 4288911266
0.11517296 -0.15630616 1.5640001 4288911266
0.12422226 -0.15603194 1.5640001 4288911266
0.13436845 -0.15493505 1.5640001 4288911266
0.14533731 -0.15493505 1.5640001 4288911266
0.15493505 -0.15493505 1.5640001 4288911266
0.16498983 -0.15402098 1.5640001 4288911266
0.1753058 -0.15336807 1.5640001 4288911266
0.18509941 -0.15219285 1.5640001 4288911266
0.19469714 -0.15356395 1.5640001 4288911266
0.20566598 -0.15356395 1.5640001 4288911266
0.21526374 -0.15287839 1.5640001 4288911266
0.22486149 -0.15219285 1.5640001 4288911266
0.23583034 -0.15219285 1.5640001 4288911266
0.24542809 -0.15219285 1.5640001 4288911266
0.25475162 -0.15274128 1.5640001 4288911266
0.26462358 -0.15219285 1.5640001 4288911266
0.27422133 -0.15219285 1.5640001 4288911266
0.27833465 -0.14945063 1.5640001 4288911266
0.28519019 -0.14945063 1.5640001 4288911266
0.29478791 -0.14853656 1.5640001 4288911266
0.3046599 -0.14835374 1.5640001 4288911266
0.31562874 -0.14835374 1.5640001 4288911266
0.32495227 -0.14807953 1.5640001 4288911266
0.33455002 -0.14807953 1.5640001 4288911266
0.34551892 -0.14807951 1.5640001 4288911266
0.35511664 -0.14807953 1.5640001 4288911266
0.36491027 -0.14827541 1.5640001 4288911266
0.37568322 -0.14807953 1.5640001 4288911266
0.38528097 -0.14716546 1.5640001 4288911266
0.39487872 -0.14670841 1.5640001 4288911266
0.40667024 -0.14615998 1.5640001 4288911266
0.41489688 -0.14506309 1.5640001 4288911266
0.42504305 -0.1439662 1.5640001 4288911266
0.43464079 -0.1439662 1.5640001 4288911266
0.44515261 -0.14305212 1.5640001 4288911266
0.4546198 -0.14239922 1.5640001 4288911266
0.46343404 -0.14122398 1.5640001 4288911266
0.49634063 -0.14122398 1.5640001 4288911266
0.50456727 -0.14122398 1.5640001 4288911266
0.51553613 -0.14122398 1.5640001 4288911266
0.52513385 -0.14122398 1.5640001 4288911266
0.53061825 -0.14122398 1.5640001 4288911266
0.54295826 -0.14122398 1.5640001 4288911266
0.45932072 -0.13848177 1.5640001 4288911266
0.4654907 -0.13779622 1.5640001 4288911266
0.475317 -0.1375677 1.5640001 4288911266
0.48454911 -0.13738489 1.5640001 4288911266
0.4935984 -0.13848177 1.5640001 4288911266
0.52787608 -0.13848177 1.5640001 4288911266
0.53473163 -0.13848177 1.5640001 4288911266
0.54570043 -0.13848177 1.5640001 4288911266
0.55529821 -0.13779622 1.5640001 4288911266
0.56489593 -0.13779622 1.5640001 4288911266
0.57668746 -0.13519111 1.5640001 4288911266
0.58491409 -0.13409424 1.5640001 4288911266
0.59506029 -0.13162625 1.5640001 4288911266
0.60465801 -0.13190046 1.5640001 4288911266
0.61425579 -0.13162625 1.5640001 4288911266
0.6247676 -0.13391142 1.5640001 4288911266
0.63550794 -0.13231179 1.5640001 4288911266
0.64414585 -0.13080359 1.5640001 4288911266
0.65538895 -0.13025513 1.5640001 4288911266
0.66361558 -0.13025513 1.5640001 4288911266
0.64716232 -0.12751292 1.5640001 4288911266
0.65264678 -0.12751292 1.5640001 4288911266
0.66498673 -0.12751292 1.5640001 4288911266
0.67549849 -0.12659885 1.5640001 4288911266
0.68555331 -0.12545626 1.5640001 4288911266
0.69515109 -0.12477071 1.5640001 4288911266
0.70416123 -0.12594594 1.5640001 4288911266
0.71599185 -0.12367382 1.5640001 4288911266
0.72600102 -0.1233996 1.5640001 4288911266
0.73409045 -0.12257694 1.5640001 4288911266
0.74646962 -0.12320372 1.5640001 4288911266
0.75547975 -0.12202849 1.5640001 4288911266
0.76507753 -0.12202849 1.5640001 4288911266
0.7733041 -0.12202849 1.5640001 4288911266
0.76781976 -0.11928628 1.5640001 4288911266
0.77467531 -0.11928628 1.5640001 4288911266
0.78509569 -0.11873783 1.5640001 4288911266
0.79543775 -0.11771931 1.5640001 4288911266
0.80483961 -0.11791516 1.5640001 4288911266
0.81424141 -0.11811105 1.5640001 4288911266
0.82458353 -0.11709251 1.5640001 4288911266
0.83226174 -0.11654407 1.5640001 4288911266
-0.87014604 -0.24209149 1.5780001 4288911266
-0.87014604 -0.2351746 1.5780001 4288911266
-0.86530417 -0.23171614 1.5780001 4288911266
-0.859079 -0.23102446 1.5780001 4288911266
-0.87014604 -0.2282577 1.5780001 4288911266
-0.86445558 -0.22509451 1.5752001 4288911266
-0.85571313 -0.22464657 1.5773638 4288911266
-0.84524518 -0.22410756 1.5780001 4288911266
-0.83556145 -0.22410756 1.5780001 4288911266
-0.82541674 -0.22364645 1.5780001 4288911266
-0.81536418 -0.22383089 1.5780001 4288911266
-0.80512714 -0.22364645 1.5780001 4288911266
-0.79544348 -0.22272418 1.5780001 4288911266
-0.78575987 -0.22272418 1.5780001 4288911266
-0.72350776 -0.22272418 1.5780001 4288911266
-0.86318725 -0.21657151 1.5710001 4288911266
-0.85526812 -0.2162272 1.5710001 4288911266
-0.84562737 -0.21622722 1.5710001 4288911266
-0.83478683 -0.21554938 1.5723124 4288911266
-0.82477903 -0.21689293 1.5738001 4288911266
-0.81518704 -0.21624289 1.5729092 4288911266
-0.80483007 -0.21707079 1.5731001 4288911266
-0.79463011 -0.21549167 1.5729092 4288911266
-0.78521144 -0.21509387 1.5727499 4288911266
-0.77520084 -0.21582617 1.5747333 4288911266
-0.76543087 -0.21487199 1.574 4288911266
-0.75502747 -0.21533473 1.5744998 4288911266
-0.74461424 -0.2157975 1.5749999 4288911266
-0.73530734 -0.21493992 1.5745 4288911266
-0.72485322 -0.21617366 1.5739168 4288911266
-0.71463925 -0.21596901 1.5731001 4288911266
-0.70516032 -0.21528022 1.5741109 4288911266
-0.69474345 -0.21441936 1.5760911 4288911266
-0.6849072 -0.21480262 1.5756668 4288911266
-0.67470187 -0.21545887 1.5747333 4288911266
-0.66510195 -0.21526469 1.5747693 4288911266
-0.6560936 -0.21448736 1.5769999 4288911266
-0.64511621 -0.21350165 1.5780001 4288911266
-0.63497138 -0.21442389 1.5780001 4288911266
-0.62528777 -0.21442391 1.5780001 4288911266
-0.61491245 -0.21338637 1.5780001 4288911266
-0.60453701 -0.21304052 1.5780001 4288911266
-0.59762013 -0.21165714 1.5780001 4288911266
-0.5616523 -0.21165714 1.5780001 4288911266
-0.55473536 -0.21165712 1.5780001 4288911266
-0.54505175 -0.21165714 1.5780001 4288911266
-0.53813481 -0.21165714 1.5780001 4288911266
-0.51046723 -0.21165714 1.5780001 4288911266
-0.50631708 -0.21165714 1.5780001 4288911266
-0.70101684 -0.20796373 1.5710001 4288911266
-0.69495696 -0.20686194 1.5710001 4288911266
-0.68504083 -0.20741284 1.5710001 4288911266
-0.67484921 -0.20796373 1.5710001 4288911266
-0.66520852 -0.20796375 1.5710001 4288911266
-0.65556788 -0.2065865 1.5710001 4288911266
-0.64399898 -0.20576015 1.5710001 4288911266
-0.63490921 -0.20520926 1.5710001 4288911266
-0.62526846 -0.20520926 1.5710001 4288911266
-0.61425054 -0.20520926 1.5710001 4288911266
-0.60495412 -0.20555356 1.5710001 4288911266
-0.59405726 -0.20646249 1.5729092 4288911266
-0.58493286 -0.20572135 1.5748889 4288911266
-0.57533902 -0.20574673 1.5750834 4288911266
-0.5644322 -0.20562935 1.574182 4288911266
-0.55493116 -0.20551814 1.5733334 4288911266
-0.54493964 -0.20556472 1.5736923 4288911266
-0.53496897 -0.2054861 1.5752001 4288911266
-0.52542406 -0.20612912 1.5760911 4288911266
-0.51477456 -0.20582293 1.5756668 4288911266
-0.50510526 -0.20582294 1.5756668 4288911266
-0.4955785 -0.20504102 1.5754547 4288911266
-0.48438066 -0.20375213 1.5780001 4288911266
-0.47449932 -0.20197348 1.5780001 4288911266
-0.4656457 -0.20114346 1.5780001 4288911266
-0.45513201 -0.20059009 1.5780001 4288911266
-0.44544834 -0.2005901 1.5780001 4288911266
-0.43438131 -0.2005901 1.5780001 4288911266
-0.42469764 -0.20059009 1.5780001 4288911266
-0.41778076 -0.2005901 1.5780001 4288911266
-0.5853284 -0.19970028 1.5710001 4288911266
-0.57522863 -0.19970028 1.5710001 4288911266
-0.56604701 -0.19970028 1.5710001 4288911266
-0.55227458 -0.19970028 1.5710001 4288911266
-0.54538834 -0.19970028 1.5710001 4288911266
-0.53437042 -0.19832303 1.5710001 4288911266
-0.52472973 -0.19832303 1.5710001 4288911266
-0.51489222 -0.1985198 1.5710001 4288911266
-0.50544834 -0.19970028 1.5710001 4288911266
-0.4956108 -0.19851978 1.5710001 4288911266
-0.48478967 -0.19832304 1.5710001 4288911266
-0.47514892 -0.19556856 1.5710001 4288911266
-0.46510401 -0.19486976 1.5727501 4288911266
-0.45521593 -0.1944162 1.5748184 4288911266
-0.44568372 -0.19507733 1.5759001 4288911266
-0.43493304 -0.1944838 1.5733334 4288911266
-0.42467052 -0.19433755 1.574182 4288911266
-0.41488746 -0.19507545 1.5760911 4288911266
-0.40516201 -0.1944387 1.5752001 4288911266
-0.39554361 -0.19507545 1.5760911 4288911266
-0.3845475 -0.19422445 1.5773638 4288911266
-0.37450072 -0.19426608 1.5780001 4288911266
-0.36567342 -0.19413431 1.5780001 4288911266
-0.35552868 -0.19367319 1.5780001 4288911266
-0.34584498 -0.19367319 1.5780001 4288911266
-0.33477795 -0.19367319 1.5780001 4288911266
-0.32509431 -0.19367319 1.5780001 4288911266
-0.31624067 -0.19284317 1.5780001 4288911266
-0.30572698 -0.19228981 1.5780001 4288911266
-0.27529261 -0.19228981 1.5780001 4288911266
-0.26422557 -0.19228981 1.5780001 4288911266
-0.45311305 -0.18868233 1.5710001 4288911266
-0.44347233 -0.18868233 1.5710001 4288911266
-0.42373189 -0.18868233 1.5710001 4288911266
-0.41455022 -0.18868233 1.5710001 4288911266
-0.40490949 -0.18730509 1.5710001 4288911266
-0.39526883 -0.18592784 1.5710001 4288911266
-0.38562813 -0.18592785 1.5710001 4288911266
-0.37498578 -0.18617825 1.5710002 4288911266
-0.36457601 -0.18671486 1.5710001 4288911266
-0.35559058 -0.186068 1.5721668 4288911266
-0.34467697 -0.18576275 1.5731539 4288911266
-0.33500284 -0.18611468 1.5725557 4288911266
-0.32540503 -0.18617825 1.5710002 4288911266
-0.31539419 -0.18648234 1.5727501 4288911266
-0.30532077 -0.1862044 1.5715384 4288911266
-0.29449028 -0.18518993 1.5736923 4288911266
-0.28493401 -0.18536183 1.5745 4288911266
-0.2753818 -0.18451479 1.574 4288911266
-0.2650198 -0.18496792 1.5744998 4288911266
-0.25464827 -0.185421 1.5749999 4288911266
-0.2455544 -0.18388413 1.5750834 4288911266
-0.23526567 -0.1840218 1.5760911 4288911266
-0.22574052 -0.18347169 1.5759001 4288911266
-0.21572904 -0.18392254 1.5774168 4288911266
-0.20474024 -0.18398952 1.5780001 4288911266
-0.19486564 -0.18381089 1.5764445 4288911266
-0.18552424 -0.18351875 1.5760911 4288911266
-0.17430589 -0.18260616 1.5780001 4288911266
-0.1646222 -0.18260616 1.5780001 4288911266
-0.1545949 -0.1822042 1.5745001 4288911266
-0.14458349 -0.1828545 1.575 4288911266
-0.13533068 -0.18311462 1.5752001 4288911266
-0.12429479 -0.1823047 1.5753751 4288911266
-0.11482054 -0.18232949 1.5780001 4288911266
-0.10513688 -0.18260616 1.5780001 4288911266
-0.095453225 -0.18260616 1.5780001 4288911266
-0.085769564 -0.18260616 1.5780001 4288911266
-0.076085895 -0.18122278 1.5780001 4288911266
-0.29197559 -0.17766438 1.5710001 4288911266
-0.28508937 -0.17766438 1.5710001 4288911266
-0.27820313 -0.17766438 1.5710001 4288911266
-0.26580796 -0.17766438 1.5710001 4288911266
-0.25479004 -0.17766438 1.5710001 4288911266
-0.24432297 -0.1771135 1.5710001 4288911266
-0.23550861 -0.17628716 1.5710001 4288911266
-0.2258679 -0.17628716 1.5710001 4288911266
-0.21530905 -0.17582808 1.5710001 4288911266
-0.20486495 -0.1752542 1.5710001 4288911266
-0.19611943 -0.17546079 1.5710001 4288911266
-0.1845506 -0.17628716 1.5710001 4288911266
-0.1749099 -0.17628713 1.5710001 4288911266
-0.1652692 -0.17628716 1.5710001 4288911266
-0.15425126 -0.17628714 1.5710001 4288911266
-0.14461054 -0.17628716 1.5710001 4288911266
-0.1351666 -0.17648388 1.5710001 4288911266
-0.12532915 -0.17628716 1.5710001 4288911266
-0.11523819 -0.17561913 1.5724001 4288911266
-0.10482595 -0.1751738 1.5733334 4288911266
-0.095170937 -0.17517379 1.5733334 4288911266
-0.085482679 -0.17510782 1.5727501 4288911266
-0.074535809 -0.17530368 1.5745001 4288911266
-0.064580657 -0.17478918 1.577 4288911266
-0.055335205 -0.17568927 1.5780001 4288911266
-0.04460974 -0.17580131 1.5767274 4288911266
-0.035120051 -0.17533587 1.5773001 4288911266
-0.025026601 -0.17468315 1.5780002 4288911266
-0.01521718 -0.17292249 1.5780001 4288911266
-0.0052142786 -0.17334816 1.5779999 4288911266
0.0056257457 -0.17458254 1.5779998 4288911266
0.014940503 -0.17347585 1.5780001 4288911266
0.024900839 -0.17568927 1.5780001 4288911266
0.034584496 -0.17489876 1.5780001 4288911266
0.044729285 -0.17384474 1.5780001 4288911266
0.055335201 -0.17153911 1.5780001 4288911266
0.065018862 -0.17153911 1.5780001 4288911266
0.074702516 -0.17153913 1.5780001 4288911266
0.085615844 -0.17200024 1.5780001 4288911266
0.095453225 -0.17153913 1.5780001 4288911266
0.1037535 -0.17015572 1.5780001 4288911266
0.1175873 -0.17015573 1.5780001 4288911266
0.12588757 -0.17015573 1.5780001 4288911266
0.13972138 -0.17015573 1.5780001 4288911266
0.14248814 -0.17015573 1.5780001 4288911266
0.15770532 -0.17015573 1.5780001 4288911266
0.16323884 -0.17015573 1.5780001 4288911266
0.20474024 -0.17015573 1.5780001 4288911266
-0.101916 -0.16940093 1.5710001 4288911266
-0.095029794 -0.16940093 1.5710001 4288911266
-0.085389093 -0.16940093 1.5710001 4288911266
-0.074371144 -0.16940093 1.5710001 4288911266
-0.064730436 -0.16802369 1.5710001 4288911266
-0.054538835 -0.16719733 1.5710001 4288911266
-0.045842528 -0.16743343 1.5710001 4288911266
-0.035808325 -0.16802369 1.5710001 4288911266
-0.024637355 -0.16695251 1.5710001 4288911266
-0.015149676 -0.16526921 1.5710001 4288911266
-0.0055089733 -0.16526921 1.5710001 4288911266
0.0053559467 -0.16572827 1.5710001 4288911266
0.015149675 -0.16526921 1.5710001 4288911266
0.024790376 -0.16664645 1.5710001 4288911266
0.035808325 -0.16664644 1.5710001 4288911266
0.045104716 -0.16630214 1.5710001 4288911266
0.055465344 -0.16414237 1.5710002 4288911266
0.064730436 -0.16389196 1.5710001 4288911266
0.074371144 -0.16389196 1.5710001 4288911266
0.085454546 -0.16401571 1.5721668 4288911266
0.095125251 -0.16405696 1.5725557 4288911266
0.10482595 -0.16413946 1.5733334 4288911266
0.11549694 -0.16391045 1.5735456 4288911266
0.1251667 -0.16468349 1.5759001 4288911266
0.13537078 -0.16438289 1.5756668 4288911266
0.14504011 -0.16438287 1.5756668 4288911266
0.15470947 -0.16438287 1.5756668 4288911266
0.16437881 -0.16438287 1.5756668 4288911266
0.17430587 -0.1646222 1.5780001 4288911266
0.18473917 -0.16399705 1.5773001 4288911266
0.19526136 -0.16405833 1.5752001 4288911266
0.20486814 -0.1646779 1.5760911 4288911266
0.21556745 -0.1644427 1.5762501 4288911266
0.22549094 -0.16462222 1.5780001 4288911266
0.23517461 -0.1646222 1.5780001 4288911266
0.24473757 -0.16454244 1.5772223 4288911266
0.2539593 -0.16424014 1.5767274 4288911266
0.26560897 -0.16323884 1.5780001 4288911266
0.27529261 -0.16323882 1.5780001 4288911266
0.28517392 -0.1630412 1.5780001 4288911266
0.29465994 -0.16296215 1.5780001 4288911266
0.30480471 -0.16277771 1.5780001 4288911266
0.31458059 -0.1624088 1.5780001 4288911266
0.32509431 -0.16185546 1.5780001 4288911266
0.33477798 -0.16185546 1.5780001 4288911266
0.34584501 -0.16185546 1.5780001 4288911266
0.35552868 -0.16185546 1.5780001 4288911266
0.36521229 -0.16185546 1.5780001 4288911266
0.37489596 -0.16185546 1.5780001 4288911266
0.38457966 -0.16185546 1.5780001 4288911266
0.39564666 -0.16185546 1.5780001 4288911266
0.40533033 -0.16323884 1.5780001 4288911266
0.41418394 -0.1624088 1.5780001 4288911266
0.42469764 -0.16185546 1.5780001 4288911266
0.43299794 -0.16185546 1.5780001 4288911266
0.088143572 -0.15838298 1.5710001 4288911266
0.095029794 -0.15838298 1.5710001 4288911266
0.10604773 -0.15838298 1.5710001 4288911266
0.12808363 -0.15838298 1.5710001 4288911266
0.13496985 -0.15838298 1.5710001 4288911266
0.14461054 -0.15838298 1.5710001 4288911266
0.15425125 -0.15838298 1.5710001 4288911266
0.1652692 -0.15838298 1.5710001 4288911266
0.17559852 -0.15769437 1.5710001 4288911266
0.18514085 -0.1572025 1.5710001 4288911266
0.19556855 -0.15838298 1.5710001 4288911266
0.20520926 -0.15838298 1.5710001 4288911266
0.21530904 -0.15746482 1.5710001 4288911266
0.2258679 -0.15700576 1.5710001 4288911266
0.23550861 -0.15700574 1.5710001 4288911266
0.2451493 -0.15700574 1.5710001 4288911266
0.25479001 -0.15728119 1.5710001 4288911266
0.2644307 -0.15700576 1.5710001 4288911266
0.27485842 -0.15680899 1.5710001 4288911266
0.28504413 -0.15618622 1.5738001 4288911266
0.29471093 -0.15506974 1.5729092 4288911266
0.30504447 -0.15558526 1.5745 4288911266
0.31539747 -0.15618625 1.5738001 4288911266
0.32470134 -0.1551163 1.5727501 4288911266
0.33471322 -0.15618624 1.5738001 4288911266
0.34482226 -0.15586372 1.5733334 4288911266
0.35538328 -0.15557057 1.5729092 4288911266
0.36506659 -0.15618624 1.5738001 4288911266
0.37468815 -0.15557057 1.5729092 4288911266
0.38562334 -0.15542188 1.5731539 4288911266
0.39551958 -0.15483959 1.5736923 4288911266
0.40502116 -0.15429536 1.5714374 4288911266
0.41501203 -0.15442769 1.5727501 4288911266
0.42413989 -0.15405853 1.573 4288911266
0.43467504 -0.1545577 1.5740623 4288911266
0.44548035 -0.15448402 1.5756668 4288911266
0.45426971 -0.15280661 1.5731001 4288911266
0.46462896 -0.1536243 1.5760911 4288911266
0.47415352 -0.15320934 1.5780001 4288911266
0.48418301 -0.15217181 1.5780001 4288911266
0.49571112 -0.15263292 1.5780001 4288911266
0.50526059 -0.15321162 1.5773001 4288911266
0.51461732 -0.15493856 1.5779999 4288911266
0.52522331 -0.15263292 1.5780001 4288911266
0.53536808 -0.15217181 1.5780001 4288911266
0.54505169 -0.15217179 1.5780001 4288911266
0.55404365 -0.15148011 1.5780001 4288911266
0.56441903 -0.15078843 1.5780001 4288911266
0.61375958 -0.15078843 1.5780001 4288911266
0.62528777 -0.15078843 1.5780001 4288911266
0.42419094 -0.14736503 1.5710001 4288911266
0.43520889 -0.14736503 1.5710001 4288911266
0.44484958 -0.14736503 1.5710001 4288911266
0.4544903 -0.14736503 1.5710001 4288911266
0.46596733 -0.1455287 1.5710001 4288911266
0.47480461 -0.14426625 1.5710001 4288911266
0.48440897 -0.14477469 1.5727501 4288911266
0.49507797 -0.14548117 1.5722729 4288911266
0.50544834 -0.14598779 1.5710001 4288911266
0.51508904 -0.14598781 1.5710001 4288911266
0.52472973 -0.14598779 1.5710001 4288911266
0.53516006 -0.1452271 1.5717001 4288911266
0.54538834 -0.14516144 1.5710001 4288911266
0.55499393 -0.14434831 1.5718751 4288911266
0.56397599 -0.14478962 1.5729092 4288911266
0.57555324 -0.14504422 1.5756668 4288911266
0.58476359 -0.14458308 1.5756668 4288911266
0.59569311 -0.14408498 1.5773001 4288911266
0.60484165 -0.14500085 1.5752001 4288911266
0.61446917 -0.14488311 1.5739168 4288911266
0.6252749 -0.14482941 1.5733334 4288911266
0.63535959 -0.14555986 1.577 4288911266
0.64465505 -0.14525491 1.5780001 4288911266
0.65572208 -0.14387152 1.5780001 4288911266
0.66540575 -0.14387152 1.5780001 4288911266
0.67416716 -0.1434104 1.5780001 4288911266
0.68477315 -0.14248814 1.5780001 4288911266
0.69491792 -0.14248814 1.5780001 4288911266
0.70552373 -0.14248814 1.5780001 4288911266
0.71244067 -0.14248814 1.5780001 4288911266
0.48616689 -0.13910158 1.5710001 4288911266
0.57568771 -0.13910158 1.5710001 4288911266
0.5853284 -0.13910158 1.5710001 4288911266
0.59496909 -0.13772434 1.5710001 4288911266
0.60460979 -0.13772433 1.5710001 4288911266
0.61425054 -0.13772433 1.5710001 4288911266
0.62480944 -0.1381834 1.5710001 4288911266
0.63490915 -0.13772433 1.5710001 4288911266
0.6443969 -0.13665314 1.5710001 4288911266
0.65593308 -0.13674967 1.5731539 4288911266
0.66520858 -0.1363471 1.5710001 4288911266
0.67517394 -0.13481835 1.5723999 4288911266
0.68479019 -0.13466573 1.5727501 4288911266
0.69478494 -0.13561226 1.5751998 4288911266
0.70533621 -0.13527669 1.5744998 4288911266
0.7149983 -0.13527669 1.5745001 4288911266
0.72464281 -0.1348598 1.5758462 4288911266
0.73484349 -0.13507263 1.5758462 4288911266
0.7446382 -0.13559766 1.5762498 4288911266
0.7546764 -0.13512202 1.5749999 4288911266
0.76530445 -0.13367799 1.5752001 4288911266
0.77490193 -0.13468291 1.5773001 4288911266
0.78575975 -0.13418786 1.5780001 4288911266
0.79544353 -0.13339737 1.5780001 4288911266
0.80512714 -0.13280448 1.5780001 4288911266
0.81411916 -0.13211279 1.5780001 4288911266
0.82449448 -0.1314211 1.5780001 4288911266
